# .PCD v0.7 - Point Cloud Data file format
VERSION 0.7
FIELDS x y z
SIZE 4 4 4
TYPE F F F
COUNT 1 1 1
WIDTH 1534
HEIGHT 1
VIEWPOINT 0 0 0 1 0 0 0
POINTS 1534
DATA ascii
7.022079 3.0317125 0.62612027
7.0274515 3.0416095 0.62662601
6.8507366 2.9702435 0.70307052
6.8301263 2.9875147 0.69962168
6.8261452 2.9917564 0.68570268
6.8401566 3.0031862 0.70487809
6.8346648 3.0160413 0.69735724
6.8260102 3.0145199 0.700014
6.8270698 3.038312 0.68971986
6.8090463 3.0414398 0.70416826
6.6443601 2.9773808 0.75592846
6.6402707 2.9805923 0.74844193
6.6366744 2.9865506 0.75577188
6.6301618 2.9960361 0.75083441
6.6201868 3.0056913 0.76060534
6.6162806 3.0135224 0.75227869
6.6115365 3.0200396 0.74728572
6.5992584 3.0420928 0.75125581
6.6096249 3.0494099 0.7495082
6.4163051 2.982811 0.82073277
6.4109116 2.9899962 0.81697673
6.4179177 2.9972272 0.8071835
6.4174252 3.0050097 0.81410569
6.4042497 3.0104403 0.82127643
6.4061241 3.0100698 0.80887109
6.3977575 3.0299795 0.81507158
6.4010515 3.0293443 0.81856966
6.3993402 3.0406439 0.81490719
6.2092276 2.9642527 0.86870229
6.2098289 2.9742002 0.86745816
6.2022943 2.9828932 0.86444521
6.2109919 3.0027437 0.87971509
6.1898837 3.0062654 0.87382537
6.1956859 3.020788 0.86442971
6.1886468 3.021374 0.86573309
6.1891904 3.0377944 0.87802124
6.1759219 3.0417223 0.88075554
6.1861401 3.0481653 0.86587632
6.0014906 2.9764125 0.92732912
6.0025873 2.9738386 0.93072045
6.0024281 2.9878781 0.93415004
5.9992442 2.9947751 0.92878127
5.9913187 3.0047364 0.93829095
5.9774919 3.0246842 0.93368596
5.9742575 3.0217893 0.94103551
5.9723153 3.0236461 0.93617994
5.9626493 3.0364554 0.92663282
5.9557061 3.043715 0.93491483
5.9538717 3.0617623 0.9275167
5.7842584 2.9777451 0.9885298
5.7880192 2.9847806 0.99587703
5.775198 2.992794 1.00177
5.7769971 2.9970548 0.98927885
5.7682943 3.0116737 0.98839587
5.7549753 3.0272548 0.99628413
5.7689948 3.0251014 0.99770129
5.7581477 3.0375016 0.98360562
5.7577424 3.0471897 0.98845339
5.7456074 3.0592868 0.98303837
5.7460632 3.055897 0.99260128
5.5796614 2.9705136 1.0604869
5.5692325 2.9861274 1.0489821
5.5646863 2.9877064 1.0536888
5.5676374 3.0047607 1.0449705
5.5496955 3.0126853 1.0437953
5.5596304 3.0188296 1.0524347
5.550972 3.018338 1.0454482
5.5482068 3.0216634 1.0601295
5.5302787 3.0370879 1.0588936
5.5269251 3.0372131 1.0462593
5.5331235 3.063704 1.0501374
5.5278482 3.0639076 1.0418677
5.5110579 3.0637174 1.0474217
5.3521109 2.9776998 1.1016287
5.3514171 2.9906228 1.1166679
5.3495378 2.9976659 1.1101134
5.3362875 3.0002463 1.1153351
5.33604 3.0042682 1.1161559
5.3304639 3.0145793 1.1046807
5.3236413 3.0257647 1.1056162
5.3241739 3.0273874 1.105334
5.3085747 3.0479846 1.1175529
5.3046951 3.0560515 1.1018846
5.3063593 3.0562947 1.1054499
5.3028717 3.0599959 1.1144862
5.2944126 3.06598 1.1031196
5.1342516 2.9869316 1.1662413
5.1245737 2.9875431 1.1666023
5.1157064 3.0067718 1.1698457
5.1153545 3.0033815 1.176852
5.1159277 3.0047383 1.1780641
5.116209 3.0147202 1.1724623
5.1086988 3.0250573 1.1675225
5.1055112 3.0413039 1.1754268
5.0858784 3.0383182 1.1796393
5.0952721 3.0511396 1.1624489
5.0932889 3.0532136 1.1747833
5.0750699 3.069762 1.1605847
5.0772014 3.0616057 1.1784756
5.0825667 3.0772691 1.1658434
4.9116979 2.9785237 1.226789
4.9054003 2.9831882 1.2312467
4.8934917 3.0045447 1.2389262
4.8966336 3.0069253 1.2357422
4.8876705 3.0138953 1.222469
4.8829103 3.0144906 1.2349193
4.88095 3.017345 1.2223518
4.8713145 3.0262318 1.2392467
4.8674712 3.0415115 1.2209052
4.8615093 3.0464282 1.2311529
4.8629055 3.0479879 1.2347516
4.8658895 3.0674026 1.2361802
4.853322 3.0590706 1.232137
4.8484244 3.078052 1.2236518
4.8403335 3.0722513 1.2353196
4.6778417 2.98332 1.2801203
4.6690521 2.9989645 1.2816219
4.6676865 2.9891834 1.285211
4.6632061 2.999778 1.2972866
4.6603751 3.0086393 1.2874916
4.6677833 3.0231352 1.2924745
4.6587806 3.0248628 1.2900966
4.6511979 3.0382798 1.2926171
4.6395626 3.0310657 1.2873554
4.6394329 3.0400367 1.2895353
4.6309624 3.051919 1.2985929
4.6279349 3.0591636 1.2967743
4.6264005 3.0692024 1.2986594
4.6284456 3.0589306 1.2846301
4.6225576 3.0700066 1.2929586
4.6268659 3.0726781 1.2892855
4.6161475 3.090544 1.2808483
4.6030426 3.0850325 1.2793424
4.6124492 3.0921006 1.2841425
4.5965853 3.1032631 1.2914394
4.6028919 3.1101878 1.2841507
4.5982475 3.1183271 1.2976443
4.5917754 3.1291826 1.2947205
4.5871797 3.1263433 1.2950747
4.5885453 3.1418848 1.2800605
4.5782309 3.1460121 1.2812797
4.5642343 3.1437082 1.2939321
4.5617919 3.1525953 1.2946469
4.5578346 3.1551933 1.2960093
4.5586681 3.1662412 1.2821199
4.5467901 3.1679184 1.2887471
4.5476146 3.1892827 1.2971113
4.5419235 3.1885154 1.2899348
4.5332999 3.1875017 1.2935288
4.545022 3.2122121 1.2862805
4.6776366 3.3212838 1.2374332
4.6753917 3.3306441 1.2392585
4.6857901 3.3419466 1.2236052
4.6768937 3.3336852 1.2241905
4.6693511 3.3506601 1.2294701
4.6679096 3.3601682 1.2300799
4.6530867 3.3549209 1.2257129
4.6466188 3.3684115 1.2342438
4.6529651 3.3777168 1.2354321
4.6428967 3.3831904 1.2350084
4.6455708 3.3898182 1.2270316
4.6387367 3.3988194 1.2218875
4.6337194 3.4028466 1.2215247
4.6330395 3.4026144 1.226386
4.6129355 3.4194851 1.221714
4.6181026 3.4195693 1.2200487
4.6038704 3.4294941 1.2266407
4.6052623 3.4376242 1.2202349
4.5951762 3.4367824 1.2366521
4.6062694 3.4505632 1.2320675
4.5969296 3.4517179 1.2276417
4.5796046 3.4507477 1.2257549
4.577126 3.4694781 1.2214395
4.574276 3.4722555 1.2304426
4.5762787 3.4796653 1.2298739
4.5736003 3.4769871 1.2229534
4.5692472 3.4848306 1.2395288
4.5514779 3.4988289 1.2378112
4.5472937 3.5075128 1.2288361
4.5595179 3.5120704 1.2272322
4.5471482 3.5120783 1.2203807
4.5303445 3.5195596 1.2261631
4.682478 3.6465328 1.1649386
4.6792908 3.6585202 1.1794571
4.6850972 3.6573353 1.1750097
4.6703258 3.6583059 1.1615151
4.6686249 3.6597667 1.1695019
4.6634898 3.6683097 1.1651316
4.6566286 3.6775289 1.1630964
4.6407833 3.6838417 1.1792772
4.6433249 3.7026634 1.1691309
4.6390061 3.7095685 1.1801378
4.6404605 3.7026696 1.1746337
4.6200294 3.7176518 1.1745924
4.6341081 3.7235179 1.1668482
4.6237307 3.7196994 1.173564
4.6198492 3.7392755 1.1752367
4.6039457 3.738822 1.1789558
4.603663 3.7366209 1.1654049
4.601336 3.7436972 1.1716846
4.595181 3.7584469 1.1703111
4.5788708 3.7740188 1.1693746
4.5735583 3.776195 1.1750786
4.5827332 3.7830992 1.1693113
4.5718579 3.7892504 1.1629639
4.5732293 3.7902005 1.1663588
4.5613074 3.7924554 1.1628983
4.5510497 3.8040018 1.1725596
4.5445023 3.8004692 1.1736026
4.5443945 3.8198225 1.1753118
4.5305581 3.8182425 1.1653683
4.6813064 3.9487548 1.1052529
4.6849704 3.9562261 1.1202739
4.6743288 3.9581201 1.1158187
4.6579108 3.9743958 1.1111411
4.6551366 3.9773088 1.1010476
4.6557484 3.9935751 1.1068505
4.6528902 3.9848669 1.1178485
4.6396847 3.9949038 1.11897
4.6275129 4.0101347 1.1131085
4.6370416 4.0168395 1.1193378
4.6166172 4.0136447 1.1065859
4.6154175 4.0196133 1.1147871
4.6092291 4.0204492 1.1183724
4.618577 4.030386 1.1117309
4.6032381 4.0430751 1.1015078
4.5977969 4.0419126 1.1010638
4.5981493 4.0634375 1.1054326
4.5894914 4.0573106 1.1133668
4.5819454 4.0645752 1.1100684
4.5685291 4.0669408 1.1070188
4.5613337 4.0744638 1.114326
4.561377 4.0863767 1.1011615
4.549613 4.0977011 1.1024007
4.5614252 4.103981 1.1071517
4.546587 4.1005397 1.1181754
4.6830969 4.2454739 1.0422792
4.6773949 4.2484026 1.0608548
4.6760526 4.2483168 1.0469104
4.6626353 4.2663379 1.0538455
4.6659107 4.2566042 1.0567689
4.6461272 4.2653451 1.0608456
4.6536422 4.279809 1.0504738
4.6479836 4.2881966 1.0450727
4.6435547 4.2940936 1.0596061
4.6238685 4.2908587 1.0443604
4.6151967 4.3082681 1.0595284
4.6099677 4.3058782 1.0511056
4.6033053 4.3080578 1.0560861
4.6026902 4.3227406 1.0525849
4.5890007 4.3266292 1.0528557
4.5982256 4.3366728 1.0553815
4.5915184 4.3401794 1.0458934
4.5744309 4.3439846 1.0583235
4.5719328 4.3493266 1.0501896
4.5639596 4.3609576 1.0523677
4.5607314 4.3699007 1.0455109
4.5526624 4.3796077 1.0498281
4.5561624 4.3886542 1.0498971
4.5446334 4.3830967 1.0582299
4.6668 4.5227318 0.98469192
4.6718373 4.5249496 0.99414372
4.6593914 4.5464978 1.0007082
4.6574488 4.5370045 0.9846921
4.6479268 4.5510683 0.98764116
4.6502619 4.5632229 0.99585235
4.6347661 4.5582223 0.98664635
4.6324043 4.5712347 1.0007957
4.6143508 4.5738378 0.99764884
4.6163573 4.591011 0.98260957
4.6066875 4.5992541 0.98801684
4.602819 4.5988374 0.98913312
4.6083937 4.6122866 0.98529738
4.6005239 4.6101136 0.98547685
4.5766287 4.6247492 0.99323779
4.5756741 4.6280584 0.98667979
4.5629215 4.62222 0.98865658
4.5609541 4.640377 0.99719012
4.5531273 4.6468463 1.0018795
4.5621443 4.6416969 0.9973042
4.5561137 4.6532621 0.99454278
4.6687326 4.8041797 0.925596
4.6690164 4.810432 0.92303562
4.6654553 4.8152246 0.93190014
4.662065 4.8225422 0.92900658
4.6464262 4.8153329 0.92303807
4.6442208 4.8218083 0.92485577
4.6239829 4.8327627 0.93846399
4.6322694 4.8423452 0.93218428
4.625236 4.8474088 0.93440717
4.6136189 4.8529143 0.94185591
4.5992312 4.8642693 0.93706423
4.5952363 4.8625894 0.93201768
4.5886717 4.8840389 0.92526627
4.5909629 4.8887978 0.93934387
4.5703511 4.8846269 0.93973339
4.5637627 4.9049678 0.94012898
4.5589824 4.9117975 0.92501873
4.567802 4.9136496 0.9330402
4.5503325 4.9152136 0.93968397
-0.76096839 -3.1429334 1.9998832
-0.76097262 -3.1481347 2.0039907
-0.75381023 -3.1527646 2.002877
-0.74973196 -3.1390276 1.9991728
-0.75578672 -3.1529036 1.9926054
-0.75034541 -3.1421642 2.0089204
-0.74630558 -3.1439247 2.0010021
-0.74056715 -3.1534553 1.9919912
-0.73120219 -3.1602597 2.0036802
-0.73626369 -3.1547444 1.9920859
-0.71826977 -3.1596384 2.0016427
-0.72504872 -3.1489329 2.0070798
-0.70771867 -3.1554627 2.0089629
-0.71150082 -3.1623135 2.0056527
-0.69898593 -3.1596196 2.0095298
-0.69303691 -3.1558867 2.005204
-0.6907717 -3.1525176 2.0001686
-0.69642329 -3.1678147 2.0066473
-0.69108444 -3.1581538 2.0073609
-0.67405516 -3.1579621 1.9946225
-0.6886189 -3.164186 1.9980165
-0.67362458 -3.1615996 1.9931363
-0.67319173 -3.1660955 2.0027404
-0.67087448 -3.158787 2.0065017
-0.65186626 -3.163379 1.993959
-0.64897943 -3.1664381 2.0061448
-0.65041727 -3.1716499 2.0026894
-0.6568892 -3.1669326 2.00492
-0.63688087 -3.1612971 1.9977887
-0.63615781 -3.163054 1.99182
-0.62817186 -3.1637981 2.0005922
-0.63679075 -3.1739724 1.9929094
-0.6302886 -3.1681397 2.0016832
-0.6141811 -3.1844172 1.9987116
-0.61431092 -3.166115 1.9920881
-0.60698241 -3.1693559 2.0033393
-0.60746682 -3.1784658 2.0103064
-0.61140537 -3.1784804 2.002912
-0.59311223 -3.18292 2.0020688
-0.60194916 -3.1710718 2.0003774
-0.5967536 -3.175674 1.9988449
-0.58278459 -3.1733327 2.0080347
-0.57649732 -3.1889279 2.0039475
-0.58143502 -3.1928556 2.004467
-0.56934333 -3.1813545 2.0041668
-0.56387383 -3.1869674 2.0014975
-0.56715208 -3.1775081 2.0105839
-0.56346226 -3.1964326 2.0005152
-0.54716557 -3.18151 2.0068598
-0.55171108 -3.1798716 2.0058997
-0.53794688 -3.1974859 2.001178
-0.54571414 -3.185581 1.9996325
-0.54429042 -3.1918397 2.00332
-0.52695292 -3.1874878 2.0039017
-0.52909476 -3.1954975 1.9968003
-0.53153574 -3.2024918 2.0048957
-0.51664507 -3.1972196 2.0032537
-0.512667 -3.1927142 2.0034845
-0.51875657 -3.1963696 1.9994286
-0.49850047 -3.1890292 1.9977959
-0.49920347 -3.1923845 1.9993273
-0.50462705 -3.1879675 1.9935358
-0.49159524 -3.206589 2.0022516
-0.49487504 -3.1923358 1.9960791
-0.47757214 -3.2046885 2.0026503
-0.48736963 -3.2039473 2.0029745
-0.46907067 -3.1927814 2.0093119
-0.47241282 -3.2021048 2.0008893
-0.45552337 -3.2019856 2.0095401
-0.4626888 -3.2060797 2.0062535
-0.45148593 -3.1953468 2.0003276
-0.45875084 -3.1945088 1.9995285
-0.45180637 -3.2051113 2.0008113
-0.43614513 -3.2034664 1.9970448
-0.44665563 -3.2089927 2.0016165
-0.43059397 -3.2087917 2.0076141
-0.43420723 -3.2147677 2.005456
-0.43148234 -3.2085629 1.994647
-0.41717905 -3.2099462 2.0046229
-0.41422421 -3.2029741 1.9911646
-0.41455522 -3.2092786 2.0090923
-0.40081117 -3.2073286 2.0085056
-0.40786549 -3.2029159 1.9979573
-0.39363608 -3.207324 2.0096884
-0.38317254 -3.2067263 1.9965217
-0.38813654 -3.2145507 2.004178
-0.38710213 -3.2104738 2.0064743
-0.38822499 -3.2081575 1.9955851
-0.38015613 -3.2160249 2.0039155
-0.36211058 -3.205425 1.9998155
-0.35752264 -3.2196443 2.0100014
-0.3550061 -3.2246091 2.002722
-0.35307574 -3.221118 2.0004334
-0.36169291 -3.2078884 1.9943085
-0.33857816 -3.2086868 2.0093472
-0.34862956 -3.2189417 1.9971206
-0.3310239 -3.2126553 2.0095241
-0.3311213 -3.2119856 2.0047908
-0.32210729 -3.2277417 1.9927304
-0.32476205 -3.2099481 1.9918044
-0.31151628 -3.2120624 1.9971868
-0.30808383 -3.2161572 1.9981261
-0.31193033 -3.2228191 2.003072
-0.29806471 -3.2225969 2.0017567
-0.31032339 -3.2237587 2.0001454
-0.3075428 -3.2194717 2.0087762
-0.29698819 -3.2220798 2.0041833
-0.29402938 -3.229286 2.0007441
-0.27580348 -3.2319803 2.0020263
-0.28963727 -3.2218316 2.0015736
-0.28439659 -3.2229404 1.9994715
-0.27377298 -3.2251203 1.9937334
-0.26220936 -3.2156513 2.0017858
-0.2656993 -3.2168217 2.0105066
-0.25050417 -3.2347565 1.9985054
-0.25691956 -3.2344167 1.9912246
-0.25470385 -3.2280293 2.0017631
-0.2370804 -3.2231903 2.0055163
-0.24289571 -3.2246337 2.00699
-0.22742839 -3.2244194 1.9990205
-0.23241328 -3.2234735 2.0103443
-0.21949974 -3.236414 1.9998839
-0.21232384 -3.2223008 1.9992819
-0.2170952 -3.2361884 1.9978926
-0.21314526 -3.2193923 1.9989455
-0.20119612 -3.2335234 2.0007086
-0.19652732 -3.2299511 2.0092232
-0.2013195 -3.2332685 2.0029345
-0.20235813 -3.2269142 1.9955542
-0.18192275 -3.2296066 2.0087333
-0.18945642 -3.2217982 2.0031974
-0.18566586 -3.2255912 2.0050538
-0.17233543 -3.2267234 2.0013494
-0.17960666 -3.2371426 2.0040774
-0.1682668 -3.2281282 2.0039153
-0.15587375 -3.2316811 2.0099294
-0.16171728 -3.2350821 1.9998169
-0.15904582 -3.227793 2.0066819
-0.14266264 -3.2260602 2.0001893
-0.15365952 -3.22841 1.9912866
-0.13147691 -3.2428124 2.010468
-0.13483006 -3.2379432 2.0061262
-0.13632661 -3.224263 2.0009153
-0.12152716 -3.2423735 2.0055418
-0.12399939 -3.2336645 1.9994334
-0.12663348 -3.2370827 2.0100162
-0.10325321 -3.2308652 1.9974359
-0.10998528 -3.2264974 1.9923763
-0.10985216 -3.2302678 2.009275
-0.096211262 -3.2295568 2.0040424
-0.091472887 -3.2311852 2.0046198
-0.087552838 -3.240689 2.0102732
-0.087974511 -3.236212 2.0098066
-0.073606983 -3.2414584 1.9914229
-0.074612692 -3.2337003 2.0019357
-0.081726618 -3.2330997 2.0092113
-0.058257498 -3.2336423 2.0028789
-0.067368582 -3.2454407 2.0010829
-0.061539061 -3.2416303 1.9956782
-0.058810901 -3.2287035 1.9911402
-0.041315224 -3.2355626 2.0051234
-0.043241777 -3.2430265 2.0097454
-0.039515048 -3.2354372 1.9989814
-0.036254801 -3.2380052 2.0031011
-0.031378061 -3.2461042 1.9951031
-0.035988428 -3.2458429 2.0078235
-0.013323164 -3.2466378 2.0001128
-0.016990183 -3.2410698 2.0007083
-0.022453329 -3.2341981 2.0052133
-0.013321013 -3.2291243 2.0027373
-0.0087265782 -3.231081 1.9934883
0.0098509025 -3.2394907 1.9968553
0.013050569 -3.2286999 2.007885
0.005486093 -3.2391753 1.9964138
0.022041395 -3.2293007 1.9969043
0.010598711 -3.2285633 1.9977106
0.031876456 -3.2296872 1.99777
0.025443362 -3.2390049 2.0034392
0.039605871 -3.2383127 1.9960154
0.038273122 -3.2330151 1.9936947
0.034464478 -3.2276499 2.0094399
0.041406814 -3.2282343 1.9967921
0.051715977 -3.2301459 1.9949452
0.053054858 -3.244149 2.0026264
0.062922433 -3.246124 2.0001798
0.073280312 -3.2440684 1.9984618
0.064444393 -3.2452621 1.9956048
0.075667724 -3.237416 2.0034084
0.072560146 -3.2399342 1.9918765
0.082028784 -3.2283123 2.0056081
0.089176506 -3.2450254 2.0046642
0.092069365 -3.2393231 2.0030892
0.10231421 -3.2278385 1.9995494
0.090711899 -3.2395415 2.0019469
0.10679068 -3.2259035 2.0023036
0.10042262 -3.226434 2.0046437
0.11233643 -3.2403269 2.0057116
0.121393 -3.2275224 1.9945408
0.11825303 -3.2423518 2.0007606
0.12358093 -3.2322383 1.9985051
0.12264014 -3.2395031 1.9994324
0.1407553 -3.2284007 2.0059519
0.13729519 -3.2315788 2.0038397
0.15029494 -3.2308848 2.0099018
0.14569193 -3.238637 2.0094726
0.16144542 -3.2372823 2.0083776
0.15953872 -3.2285388 1.9932479
0.15869956 -3.2352629 2.0107746
0.16668931 -3.2296517 1.9933174
0.18089856 -3.2232366 2.0058129
0.17285199 -3.2422862 2.0108767
0.18573248 -3.2277443 2.0068696
0.18513213 -3.2411861 1.9995043
0.18241918 -3.2261512 1.9926473
0.18576784 -3.2402425 1.9978455
0.20868702 -3.2231028 2.0042
0.21051075 -3.2323921 1.9990929
0.2172045 -3.2270427 2.0070503
0.22142449 -3.2382255 2.0004013
0.20818701 -3.2397203 1.9999434
0.22744466 -3.233783 2.0002055
0.23176561 -3.2394857 1.994773
0.23207892 -3.2303097 1.9956557
0.24502668 -3.2283666 1.9913239
0.23111692 -3.2275946 1.9926454
0.24240501 -3.2284231 2.0108447
0.24004698 -3.2319467 1.9994866
0.25258151 -3.2332954 1.9932032
0.25307289 -3.2349424 1.9954562
0.26691484 -3.2343447 1.9959272
0.26029843 -3.219007 2.0020421
0.27394369 -3.2238653 2.0021544
0.28215581 -3.2329271 1.9911366
0.2712501 -3.2335572 2.0017495
0.27601209 -3.2326131 1.9928155
0.2820951 -3.2248962 2.0027282
0.28637689 -3.2240522 2.0087857
0.29929987 -3.215188 1.9931569
0.30593887 -3.2303464 1.9955372
0.31483042 -3.2161765 1.9981648
0.30419239 -3.213136 1.9957736
0.31966871 -3.2209625 2.0081611
0.3152566 -3.2250888 1.9911175
0.31982613 -3.2246325 1.9930681
0.33500788 -3.2239251 1.9955812
0.34125507 -3.2216451 2.0054231
0.33741423 -3.219593 1.9957143
0.33963034 -3.2291274 1.994469
0.34621701 -3.2165313 1.9976581
0.35518327 -3.219552 1.9946039
0.36677647 -3.2177181 1.9941705
0.35597774 -3.224915 2.0054846
0.35756579 -3.2210305 1.99224
0.36210957 -3.217082 1.9990132
0.36860338 -3.2224572 2.0060489
0.37760949 -3.2060895 1.9949135
0.37645671 -3.2180665 2.0053725
0.38559458 -3.2123308 2.0058336
0.39348635 -3.2045109 1.9984205
0.40456653 -3.2122269 2.0075104
0.4125917 -3.2128508 1.9979516
0.40018275 -3.2087741 2.0007069
0.41908714 -3.2076094 2.0068514
0.4247461 -3.2063999 1.996443
0.41717738 -3.2031953 2.0001516
0.41664356 -3.2154822 1.9997138
0.42497349 -3.2134192 2.0067785
0.44376174 -3.2067146 1.999052
0.44301018 -3.2166138 1.9986125
0.43484476 -3.1999278 2.0099177
0.4557685 -3.1997106 2.0000536
0.44713247 -3.2163959 1.9937142
0.46125084 -3.1986692 2.0079815
0.46151301 -3.1997752 2.0028939
0.47136578 -3.2129412 2.0004404
0.46492627 -3.2111311 2.0051227
0.47804803 -3.2054806 1.991285
0.47823346 -3.2055302 2.0035625
0.49069163 -3.2108192 2.0053446
0.48270935 -3.2087605 2.003211
0.48603141 -3.2102642 2.0006864
0.49948832 -3.2048893 2.0008616
0.50660497 -3.1898801 1.998143
0.50798804 -3.1990924 1.9936908
0.50428247 -3.2029345 1.9954395
0.51812226 -3.1976976 1.9983585
0.51664352 -3.2038202 2.0062821
0.52132601 -3.194237 1.9935039
0.5382849 -3.1966748 1.9947782
0.53702509 -3.1915729 1.9974463
0.53363073 -3.1876259 1.9979398
0.54771048 -3.1946983 2.0031312
0.54196465 -3.1991296 2.0026481
0.55349898 -3.1866519 1.992263
0.56058019 -3.182353 1.9973397
0.56940895 -3.1886868 2.0069509
0.56115562 -3.1809709 2.0097311
0.56082487 -3.1930428 2.0013797
0.56771475 -3.192625 2.0098696
0.57587785 -3.1779356 2.0027342
0.58670795 -3.1911077 1.998812
0.57803053 -3.1946666 2.0070777
0.59454322 -3.1884367 2.0101662
0.5905717 -3.1751366 2.0049801
0.59621394 -3.1792185 2.0033343
0.60693175 -3.1789336 1.9945898
0.60725957 -3.1713634 1.9927906
0.61036652 -3.1885839 1.9981422
0.62512094 -3.1833732 2.0031281
0.62836403 -3.1744573 2.0020137
0.62447041 -3.179168 2.0069313
0.63665348 -3.177012 2.0074878
0.63710093 -3.1827974 1.9934659
0.64063573 -3.1770077 1.9919295
0.63898319 -3.170028 2.0054905
0.65568358 -3.1767817 1.9985092
0.64363831 -3.1676571 1.9982649
0.64979255 -3.1798747 1.9999607
0.66129714 -3.1617851 2.0060215
0.65778631 -3.1648991 2.0001459
0.6731599 -3.1763515 2.0087018
0.67344964 -3.1600652 1.9985493
0.67429459 -3.167774 2.0017409
0.6811164 -3.1563895 2.0098453
0.68640059 -3.171098 2.0040462
0.68524438 -3.1735451 2.0106046
0.69710553 -3.1724753 2.0053918
0.70872104 -3.1696877 2.0070601
0.70203108 -3.159831 2.0059099
0.7014004 -3.1579194 2.0007319
0.71489292 -3.1650667 2.0031812
0.71693987 -3.1563559 2.0009906
0.72883296 -3.1512301 2.0101585
0.72391617 -3.1637115 2.0097721
0.7271024 -3.1553364 1.9937323
0.74448824 -3.1525438 1.9942942
0.74843091 -3.1623149 1.9949685
0.74715942 -3.1448939 1.9974667
0.74755478 -3.1585853 2.0088518
0.74679857 -3.1573281 2.0011728
0.76086301 -3.1469979 2.0053644
0.75737524 -3.139039 1.9972786
0.77169532 -3.1436038 1.9933238
0.77518195 -3.1375008 1.9958872
0.77828062 -3.1526253 2.0058188
0.78533798 -3.1347768 1.9975302
0.7929557 -3.1373966 1.9984515
0.78124619 -3.1456976 1.9957682
0.79203331 -3.1380115 1.9983623
0.79420406 -3.1354885 2.0011756
0.8086943 -3.1433065 1.9932755
0.80737454 -3.1390162 1.9922844
0.81796736 -3.1448083 2.0056722
0.82460397 -3.1315148 2.004101
0.8138023 -3.1395221 2.0063369
0.83293068 -3.1248698 2.0053468
0.82376885 -3.1269965 2.0006559
0.8355267 -3.1252277 2.0065775
0.84459972 -3.1370654 1.9990919
0.83626515 -3.131124 1.9930301
0.85074246 -3.135083 1.9980451
0.85731792 -3.1247504 2.0062389
0.86290056 -3.1282125 2.0075233
0.86186951 -3.1294236 2.0009775
0.85926563 -3.1258206 2.0052946
0.87889576 -3.1274719 2.0031278
0.87753409 -3.1226661 1.9976923
0.87147999 -3.1104817 1.9928775
0.89134562 -3.1136022 1.9950708
0.88372397 -3.1094334 2.0020449
0.89003897 -3.1151619 2.0038936
0.90136719 -3.1186879 1.9949019
0.90088761 -3.1210024 2.0012696
0.9016906 -3.1087177 2.0052412
0.91594607 -3.103405 1.9916246
0.91451681 -3.1028285 1.9951597
0.91091913 -3.1079781 2.0022976
0.92188412 -3.103545 2.0004106
0.92803246 -3.1036074 1.9941876
0.93637228 -3.0956511 2.0109119
0.93168443 -3.1057377 2.0006802
0.94884342 -3.1088524 2.0056887
0.93700904 -3.096801 2.007143
0.95154041 -3.1082993 1.9996359
0.95004153 -3.0898931 1.9961897
0.95492435 -3.0972652 1.992062
0.96334046 -3.0925827 2.0015204
0.95889252 -3.1012809 1.9941419
0.97255564 -3.0881746 2.0054247
0.97999394 -3.0910707 2.0033813
0.9841547 -3.0829949 2.009963
0.97808182 -3.0820987 1.9921355
0.97701561 -3.0773737 2.005059
0.99740165 -3.0824521 2.0051775
0.99027884 -3.0933626 2.0023894
0.99970782 -3.0837214 2.0109105
1.0050073 -3.0899935 2.0027893
0.99976319 -3.0850413 2.0046391
1.0071387 -3.0707514 1.9982585
1.025795 -3.0733473 2.0076387
1.0224059 -3.0761044 2.0037458
1.0255965 -3.0692544 1.9993941
1.0309576 -3.0677886 1.9984064
1.0292403 -3.0702531 2.0109732
1.0476394 -3.0641551 1.9912564
1.0432485 -3.0729403 1.9998015
1.0473766 -3.0607367 2.0006893
1.0433816 -3.0580854 2.0051384
1.0612344 -3.0723658 2.0024798
1.0527043 -3.0722942 1.9958222
1.0735526 -3.0599146 2.0049984
1.0705059 -3.0686452 1.9996092
1.0631052 -3.0563135 1.9942645
1.0747149 -3.0499959 2.0050278
1.0788893 -3.0495739 2.0004561
1.0833448 -3.0578356 2.0056598
1.0963434 -3.0462599 2.0016217
1.0902277 -3.042968 1.9987836
1.1085589 -3.0461102 2.0002079
1.1042293 -3.0420671 2.0002403
1.1132401 -3.0414584 1.9911833
1.1114249 -3.048177 1.9919202
1.1242185 -3.0465748 2.0035079
1.111665 -3.0376394 1.9999256
1.1298728 -3.048804 1.9952723
1.1235067 -3.0397856 2.0008581
1.142342 -3.0420387 1.9965142
1.1371373 -3.0346756 1.9939512
1.1490921 -3.0332475 2.0067289
1.142469 -3.0404127 2.0020268
1.1558763 -3.0228288 1.9964042
1.1602241 -3.0313196 2.002528
1.1653067 -3.0312748 2.008713
1.1619745 -3.0280385 2.0022867
1.175058 -3.0308475 2.0031428
1.1634859 -3.0242739 1.9914585
1.1774973 -3.0231135 1.9959565
1.1871626 -3.0114045 2.006247
1.1742626 -3.0119853 1.996389
1.1941381 -3.0234313 1.9977834
1.189309 -3.0057101 1.9951732
1.1988552 -3.007879 2.0024776
1.1945227 -3.0092008 2.0082266
1.1963731 -3.0180881 1.9956059
1.2117949 -2.9981229 1.9985639
1.2080702 -3.0139589 2.0064776
1.212659 -3.00001 1.9939275
1.2217435 -3.0006201 1.9914565
1.2211161 -2.9983523 2.0067689
8.5035648 2.9505558 0.29630196
8.4965124 2.9708741 0.27816179
8.4939947 2.9880743 0.28670153
8.4883356 3.0001123 0.28815475
8.4890099 3.0025821 0.2802594
8.4952087 3.0180075 0.27748504
8.3143377 2.9594734 0.3393296
8.3092718 2.9735391 0.33783966
8.2995815 2.99575 0.34815115
8.2943735 2.9973142 0.34861034
8.2866068 3.0119712 0.35238487
8.1025267 2.9582245 0.40256283
8.1002588 2.9713104 0.40013021
8.0865154 2.982887 0.39788166
8.0942087 2.9993043 0.40625441
8.0939903 3.0061038 0.39821026
8.0909824 3.0165613 0.40400577
8.0718527 3.0260787 0.39228803
7.8919892 2.9628258 0.46915877
7.9017434 2.985496 0.45807549
7.8919415 2.9845746 0.47008771
7.8858986 3.0036404 0.46226507
7.8720675 3.0045536 0.45622948
7.8757887 3.0158539 0.45047748
7.6985869 2.970273 0.52780658
7.6884975 2.9771092 0.52270263
7.6903491 2.985116 0.51678061
7.6779814 2.9981873 0.50910634
7.6738806 3.0148327 0.51413798
7.668685 3.0253642 0.51083213
7.6723909 3.0302405 0.51560253
7.4901156 2.9627721 0.56639355
7.4780803 2.9758661 0.56915659
7.4799943 2.9968743 0.57223552
7.4761424 3.0035479 0.56747645
7.4716535 3.0042598 0.57883018
7.4620466 3.0309658 0.56747317
7.4665027 3.0294614 0.57847559
7.2859888 2.9758282 0.63336855
7.2678742 2.9731395 0.63014191
7.2664399 2.9983594 0.64109743
7.269762 3.0035 0.62436056
7.2659097 3.0207388 0.63028365
7.2648067 3.0240397 0.62678677
7.246768 3.0276513 0.63954103
7.067389 2.9770215 0.70054156
7.0760202 2.9746597 0.69988644
7.0732813 2.9809604 0.6873219
7.0615306 2.9882498 0.6829257
7.0467081 3.001559 0.68569535
7.0486455 3.0175827 0.68354517
7.0415244 3.0210907 0.69640154
7.037653 3.0449233 0.6963684
6.8639598 2.9759464 0.7474649
6.8625932 2.9887884 0.75410545
6.8539677 2.9830377 0.7539354
6.8483782 2.9900486 0.74154532
6.8421206 2.9984636 0.74560368
6.8432846 3.0192857 0.74710464
6.8400397 3.0294564 0.75207418
6.839551 3.0457492 0.74323225
6.6620264 2.9612641 0.8060202
6.6523261 2.9747314 0.80486673
6.6425796 2.9944627 0.80081642
6.6459656 2.9969609 0.80004179
6.6359792 3.0149806 0.80395627
6.6258101 3.0115712 0.80532706
6.6232381 3.0260777 0.80556422
6.624711 3.0259354 0.8170805
6.6276727 3.0467482 0.80923051
6.4417109 2.9712391 0.8660931
6.440886 2.9771082 0.86885017
6.4448853 2.9974086 0.8757993
6.4277191 2.9921069 0.87321013
6.4264898 3.0143483 0.86385572
6.4244738 3.0107739 0.86326313
6.4263592 3.0212133 0.87000918
6.4096031 3.0332766 0.86201566
6.4130721 3.0510218 0.86463958
6.4080443 3.0559504 0.85884202
6.2224092 2.9705648 0.92630446
6.2285337 2.9907155 0.93270552
6.2174029 2.9990141 0.93043292
6.2132096 3.014307 0.9138903
6.2064147 3.0125442 0.93062687
6.2102537 3.0129504 0.91483241
6.2134876 3.0394409 0.92052674
6.2034559 3.0333858 0.92933953
6.1854181 3.0550227 0.9269588
6.1899924 3.0558677 0.92057353
6.01718 2.9832001 0.98029327
6.0055633 2.9854333 0.9735328
6.0003352 3.0006936 0.98639667
5.9928236 2.9959297 0.98588514
5.9887571 3.0085528 0.97494805
6.0014157 3.0292084 0.97576082
5.9982681 3.0373039 0.9744131
5.980803 3.0395854 0.97836548
5.9721394 3.048059 0.97531575
5.9810834 3.0653491 0.98447782
5.7932549 2.9784002 1.0351666
5.7976809 2.9910014 1.0417559
5.7953353 3.0025339 1.0352296
5.7858424 3.0107255 1.0355694
5.7958269 3.019033 1.0401682
5.7748628 3.0241935 1.0370641
5.7747002 3.030412 1.0337031
5.7731786 3.0233834 1.0442767
5.775598 3.03192 1.0349834
5.7749567 3.0536413 1.0346453
5.7634664 3.0621619 1.0462871
5.7647023 3.0592506 1.0424449
5.5836272 2.9880474 1.1000069
5.5850301 2.9813795 1.0997361
5.5667615 2.9888721 1.0997052
5.573081 2.9995875 1.096773
5.5762858 3.014339 1.0920035
5.556119 3.0317783 1.0921551
5.5665145 3.0358582 1.0927992
5.547606 3.0435288 1.1071264
5.5483484 3.0439522 1.1019417
5.5407224 3.0498662 1.1058195
5.549243 3.0678601 1.1005733
5.537364 3.0714076 1.1008806
5.3578467 2.9879317 1.1588583
5.3657746 2.9876313 1.1618336
5.3507595 2.994719 1.151799
5.3509645 3.0058341 1.1514482
5.3513107 3.0115497 1.147428
5.3522906 3.022573 1.1633346
5.3475876 3.0185657 1.1519269
5.3376889 3.0311697 1.1587013
5.3316579 3.0365424 1.1557438
5.3203707 3.0542953 1.1486138
5.32938 3.0641575 1.1632109
5.3184061 3.0660982 1.1500329
5.3103967 3.0771849 1.156474
5.1467004 2.9767094 1.2045182
5.1484194 2.9964697 1.2128704
5.1461077 3.0014026 1.2047945
5.1396933 3.0058351 1.2052662
5.121861 3.0045824 1.2109025
5.1307926 3.0215223 1.214478
5.1167574 3.0314088 1.208379
5.115582 3.034549 1.2047206
5.1089935 3.0509701 1.2155871
5.1092176 3.0436468 1.2101308
5.0958724 3.0625451 1.212734
5.0926108 3.0673134 1.2079309
5.0976915 3.0739324 1.2208999
5.094686 3.0783081 1.2111464
4.9284072 2.9898746 1.270942
4.9116287 2.9934945 1.2625834
4.9184165 3.0072806 1.276974
4.9190955 3.0041029 1.2673733
4.8961067 3.0185583 1.267068
4.9039745 3.0174689 1.2723198
4.9063768 3.027276 1.2693559
4.8913727 3.0380726 1.2640527
4.8915558 3.0382111 1.2782667
4.8846989 3.0396154 1.2697603
4.8880782 3.0627575 1.2648886
4.8732934 3.0532734 1.2767816
4.8701401 3.0747387 1.2756109
4.8613682 3.0810544 1.2644186
4.8629861 3.0885623 1.280844
4.7026658 2.985563 1.3272986
4.6893544 2.9915059 1.3387833
4.6930704 3.006654 1.3342441
4.691474 3.0062048 1.323029
4.684082 3.0031269 1.3264097
4.6681747 3.0076668 1.3261298
4.6673865 3.0216694 1.3295691
4.6584826 3.0367758 1.327683
4.6683989 3.0273769 1.3253279
4.6671133 3.0438716 1.3237016
4.6622443 3.0459549 1.3348687
4.6458702 3.0588787 1.3254372
4.6409717 3.0596788 1.3246186
4.651525 3.0630522 1.336821
4.6308537 3.0832129 1.3394215
4.6335545 3.0916538 1.3200442
4.6359663 3.0835042 1.3281572
4.6218085 3.0906565 1.3248705
4.6257553 3.0919399 1.3256844
4.607338 3.1161625 1.3364987
4.6072855 3.1197495 1.3229079
4.5983915 3.1112046 1.3357581
4.6000566 3.1220124 1.3229318
4.6008945 3.1276338 1.3270081
4.5939255 3.1368537 1.3247802
4.5895486 3.1530526 1.3245347
4.5857849 3.1559508 1.3296865
4.5901256 3.1489875 1.335544
4.5711703 3.1702766 1.3362441
4.5730205 3.1774631 1.3347322
4.5656762 3.1689203 1.3303785
4.5647316 3.1758156 1.3310573
4.5566287 3.1887176 1.3361272
4.5556908 3.2068074 1.320408
4.5588202 3.2022877 1.3275042
4.5397124 3.2177587 1.324401
4.5403509 3.2138431 1.337804
4.5461321 3.2186542 1.3378574
4.6937184 3.3398972 1.2748691
4.6858845 3.3366194 1.2706442
4.6765294 3.3504095 1.2715089
4.6828117 3.3676765 1.2729076
4.6697636 3.3612707 1.2808529
4.6617761 3.3783655 1.280539
4.6580606 3.3830378 1.2693624
4.6614323 3.393059 1.2673203
4.6416917 3.3881841 1.2750323
4.6553445 3.3935647 1.281231
4.6490421 3.3950582 1.2713629
4.6376934 3.4133649 1.2716877
4.6421108 3.4269724 1.2792797
4.6273837 3.4315276 1.2776226
4.6140461 3.4277089 1.2630498
4.6086454 3.4405863 1.2790689
4.6229215 3.4344404 1.2732635
4.6060119 3.4563677 1.2709894
4.6070514 3.4632649 1.277357
4.5957937 3.4685349 1.2626283
4.5907264 3.4722309 1.2629228
4.5957813 3.4693158 1.2750602
4.5811524 3.4755645 1.2743484
4.5741067 3.491842 1.2717413
4.5653949 3.4995465 1.2788717
4.5621014 3.5066237 1.2724425
4.5548177 3.5127594 1.273437
4.5617204 3.5067775 1.2699353
4.5463395 3.5266354 1.2669137
4.5573177 3.5200453 1.2627518
4.5535583 3.5332055 1.2758826
4.5500846 3.5362484 1.2797015
4.6895833 3.6673455 1.2054281
4.6773524 3.6786056 1.2189997
4.6825056 3.6860073 1.2138995
4.6747804 3.674978 1.2095069
4.6606169 3.6815372 1.2048872
4.6674385 3.6998789 1.2079293
4.6507492 3.7077296 1.2044802
4.6510296 3.7114563 1.2080984
4.6471391 3.7163305 1.2185415
4.6363702 3.722647 1.2056988
4.6294112 3.7225428 1.2197845
4.6261206 3.735306 1.2186046
4.6163926 3.7383296 1.2183082
4.6215558 3.7387443 1.2204717
4.6223168 3.7501202 1.2226902
4.6184497 3.7534525 1.2167538
4.5976152 3.7652392 1.2121783
4.5933232 3.7824588 1.2048472
4.5926399 3.7809491 1.2159153
4.5823913 3.7938411 1.2068318
4.5792909 3.7849536 1.2111833
4.5702672 3.7979643 1.2218446
4.5800543 3.8064446 1.2090833
4.5695367 3.8052943 1.2102977
4.5611734 3.8101208 1.2164565
4.5550199 3.8163042 1.2195233
4.5429211 3.8268869 1.2079598
4.5462379 3.8384197 1.2072059
4.5422149 3.8345206 1.2185401
4.6752005 3.9694896 1.1584204
4.6729712 3.9829743 1.1609765
4.6750846 3.992713 1.1501629
4.66785 3.9975259 1.1614567
4.6678448 3.9971166 1.1652348
4.6490455 4.0136485 1.1474812
4.6563954 4.0093403 1.1495603
4.6468034 4.0182552 1.155879
4.6456385 4.0158181 1.1473945
4.6237111 4.0346975 1.1486828
4.6331086 4.0459619 1.1547625
4.6203284 4.0405278 1.14781
4.6100955 4.0427461 1.1640869
4.6090398 4.0632782 1.1586752
4.5992689 4.0693636 1.1463604
4.593267 4.0622158 1.1640916
4.5895028 4.0679941 1.1510364
4.5878091 4.0897651 1.1604257
4.5724249 4.0959654 1.1609151
4.5685472 4.1058407 1.1538295
4.565949 4.1107254 1.1515613
4.5694213 4.1084504 1.1574196
4.5659328 4.1215725 1.159065
4.5587115 4.119278 1.1548195
4.5460706 4.1328602 1.1502438
4.6826434 4.2549715 1.094162
4.675221 4.2703075 1.0954096
4.6747341 4.2696233 1.0920366
4.6636271 4.2792387 1.08848
4.6530008 4.290668 1.0884228
4.6552796 4.3052001 1.1068825
4.6352811 4.3089147 1.0967077
4.6411319 4.3148589 1.0933032
4.6286192 4.3193097 1.1012599
4.6318521 4.3168559 1.096463
4.6305003 4.3351817 1.0985751
4.6110086 4.3320198 1.0895059
4.6127553 4.3343134 1.0932438
4.6111202 4.3514524 1.1000961
4.6059194 4.3439264 1.0918856
4.6006527 4.3646498 1.0917231
4.5938363 4.3713541 1.0887995
4.5768366 4.3698974 1.1053529
4.5764232 4.3819256 1.0998983
4.5639582 4.383193 1.1055393
4.5666866 4.3891239 1.1030644
4.5515189 4.4015875 1.0909934
4.5472727 4.4018312 1.0947911
4.6840835 4.539834 1.0313601
4.6702232 4.545527 1.0319458
4.6681442 4.5520129 1.0468549
4.6658931 4.5577512 1.0420768
4.6607094 4.5725675 1.0494593
4.65207 4.5730572 1.0424957
4.6379671 4.5871773 1.0304337
4.6294961 4.5901303 1.037945
4.6185412 4.6040282 1.031571
4.6155062 4.5998025 1.0391003
4.6162601 4.601191 1.0449486
4.6115246 4.6150455 1.0299748
4.6073661 4.6131558 1.0349811
4.5981078 4.6353588 1.0392288
4.5840621 4.638732 1.0318047
4.5773907 4.6398277 1.0383911
4.583746 4.653192 1.0326271
4.5780306 4.6444654 1.0433545
4.5598178 4.6511731 1.0415277
4.555222 4.6612444 1.0490317
4.558147 4.6784768 1.0314894
4.6802697 4.8147116 0.9834249
4.6738596 4.8160772 0.98500496
4.6724463 4.834619 0.98238069
4.6552715 4.8455577 0.97673059
4.6506639 4.8362765 0.98578674
4.6526337 4.8398113 0.98182631
4.6288304 4.8641005 0.98276782
4.635745 4.8566551 0.98405463
4.6208243 4.8711014 0.98905927
4.6133986 4.8749685 0.98495185
4.6084218 4.8741045 0.97342253
4.5933218 4.8935356 0.97674704
4.5997934 4.8982682 0.97211009
4.5836315 4.8925505 0.97191858
4.581811 4.9089575 0.97596174
4.5690374 4.9140763 0.97706521
4.5722942 4.922142 0.97599256
4.5564842 4.923883 0.98101878
4.5619516 4.9374723 0.97404486
4.5524154 4.9304137 0.98450094
-0.76368564 -3.3457172 1.9720893
-0.76699078 -3.3448813 1.9761562
-0.75118941 -3.3535659 1.9764936
-0.75697219 -3.3543134 1.9591476
-0.75648749 -3.3437259 1.9623156
-0.75157982 -3.3553126 1.9665724
-0.74299431 -3.3487713 1.9692032
-0.73632032 -3.3587897 1.9703182
-0.73214257 -3.3598011 1.9688448
-0.72332996 -3.3657587 1.9659188
-0.72253078 -3.3525975 1.9768111
-0.72262365 -3.3674219 1.969622
-0.71864814 -3.3511274 1.9748244
-0.71433389 -3.3652995 1.9603491
-0.7073642 -3.363672 1.9575245
-0.69722515 -3.3618238 1.9641697
-0.68282789 -3.3560781 1.9584062
-0.68579841 -3.3683481 1.9636681
-0.68765265 -3.3611314 1.9689555
-0.67097896 -3.3697946 1.9693156
-0.67722994 -3.3623528 1.9638609
-0.67258728 -3.3596992 1.9645989
-0.65513241 -3.3777668 1.962642
-0.65247375 -3.3762186 1.9675171
-0.66428906 -3.3724 1.9750173
-0.65892774 -3.3631437 1.9653568
-0.64691991 -3.3641925 1.9624264
-0.64067429 -3.3729153 1.9682039
-0.62916553 -3.3681977 1.9621693
-0.63236803 -3.3715127 1.968436
-0.6352092 -3.3857865 1.9631027
-0.62350386 -3.380127 1.9613745
-0.61105937 -3.3817229 1.9625237
-0.62057054 -3.3853719 1.9661595
-0.6052053 -3.3855493 1.9745454
-0.60233867 -3.3850799 1.9731128
-0.5891313 -3.3773181 1.9715502
-0.59885317 -3.3880277 1.9621767
-0.58279639 -3.3919468 1.9584262
-0.59277314 -3.3837876 1.9722594
-0.57648194 -3.3831906 1.9727108
-0.56552291 -3.3956101 1.9597076
-0.57629091 -3.3803082 1.9659874
-0.56590867 -3.3792419 1.9694905
-0.55188954 -3.387536 1.973682
-0.54948336 -3.3976903 1.9592022
-0.54850858 -3.3993652 1.9733367
-0.54909533 -3.3954911 1.9576074
-0.53905457 -3.4002905 1.9587985
-0.53276318 -3.3997984 1.9689813
-0.53263754 -3.3877475 1.9605873
-0.53205937 -3.3894718 1.9605932
-0.52448338 -3.3866987 1.9767139
-0.51062655 -3.3982797 1.9747071
-0.51326561 -3.4005785 1.9652058
-0.51171207 -3.4052098 1.9663434
-0.50463742 -3.3936055 1.9665923
-0.50342733 -3.4073286 1.9714952
-0.49794549 -3.3957524 1.9723715
-0.49127159 -3.4026277 1.9745066
-0.47441393 -3.3941209 1.9694521
-0.48594937 -3.4097807 1.9634268
-0.47747785 -3.4026105 1.9609212
-0.47288471 -3.4063303 1.9675745
-0.47029746 -3.3974371 1.9726621
-0.45721048 -3.4117393 1.9738452
-0.4629851 -3.4037168 1.9673527
-0.44850981 -3.399235 1.9678504
-0.44913083 -3.4140234 1.960631
-0.44887459 -3.4068906 1.9672365
-0.44648242 -3.4076543 1.9630421
-0.42914379 -3.4047081 1.9638747
-0.41782957 -3.3980463 1.9725575
-0.42902026 -3.4115479 1.9581941
-0.41355675 -3.4072201 1.9733908
-0.41300479 -3.4145637 1.9749455
-0.4112688 -3.4124417 1.9651763
-0.39602461 -3.4206047 1.9605359
-0.40028188 -3.41415 1.9617472
-0.39175776 -3.4122012 1.9707248
-0.3966274 -3.4126234 1.9595658
-0.3856906 -3.420471 1.9719731
-0.3739205 -3.4217691 1.9716558
-0.37346676 -3.4190235 1.9584439
-0.36737567 -3.405581 1.9701601
-0.36608714 -3.4163537 1.9751261
-0.36324316 -3.4101586 1.9628013
-0.35016763 -3.4134884 1.9628937
-0.34173194 -3.4258451 1.9700143
-0.35208416 -3.4144485 1.9596506
-0.33345813 -3.4126928 1.969425
-0.34599048 -3.4247723 1.9719055
-0.32611483 -3.4098547 1.9736347
-0.3265557 -3.4192569 1.9586498
-0.32020783 -3.4273427 1.957641
-0.32214314 -3.4189148 1.9663862
-0.31911176 -3.4124191 1.9618467
-0.30840459 -3.4176242 1.974491
-0.29760444 -3.4191711 1.9752853
-0.29968303 -3.415848 1.9679766
-0.29212469 -3.4186778 1.9629171
-0.29479143 -3.4188192 1.9662648
-0.27497712 -3.4238651 1.9650104
-0.27343297 -3.4141326 1.9748271
-0.26687321 -3.4228334 1.9570248
-0.26132169 -3.4182518 1.9681104
-0.26702437 -3.4154215 1.9661453
-0.25726599 -3.4266672 1.9594216
-0.25486284 -3.4318967 1.9715912
-0.25166482 -3.4239893 1.967517
-0.23577505 -3.4333086 1.9610398
-0.24494426 -3.4300804 1.974841
-0.23076522 -3.4318242 1.9640096
-0.23784024 -3.4368107 1.9633173
-0.23509814 -3.4200249 1.9743239
-0.23015779 -3.4224756 1.9703053
-0.21413139 -3.4354174 1.9695036
-0.22006965 -3.4233899 1.957836
-0.21273111 -3.433749 1.9613119
-0.19322258 -3.4256999 1.9730617
-0.19778781 -3.4265518 1.9758517
-0.18882987 -3.4213641 1.9622229
-0.18607034 -3.4267888 1.9671966
-0.17414182 -3.4240806 1.9675233
-0.18290523 -3.4234228 1.9649688
-0.18066168 -3.4226177 1.9602898
-0.16243637 -3.4305797 1.9629885
-0.16501237 -3.4292736 1.9580274
-0.1592557 -3.4254234 1.9630134
-0.15002276 -3.4268596 1.9763479
-0.14903978 -3.4376559 1.9691231
-0.14526643 -3.4242899 1.9673721
-0.13512157 -3.4329605 1.9604757
-0.14000273 -3.4344988 1.97656
-0.12455685 -3.4295971 1.973568
-0.13166524 -3.4272492 1.9716401
-0.12345237 -3.4314733 1.9620029
-0.11254058 -3.4430709 1.9739171
-0.10658962 -3.4337103 1.9699208
-0.11565236 -3.4399152 1.9647205
-0.091380477 -3.4299357 1.9689494
-0.094333149 -3.4409819 1.9667633
-0.099036597 -3.4266827 1.9761188
-0.090636283 -3.4420645 1.9641415
-0.086151458 -3.4268003 1.9572645
-0.084658518 -3.4434445 1.9729277
-0.065093227 -3.4366765 1.9645522
-0.075165071 -3.4437973 1.9647574
-0.05332239 -3.4297683 1.9744953
-0.055476032 -3.4296031 1.9581935
-0.062829748 -3.4299676 1.9720297
-0.045954369 -3.4380863 1.9749714
-0.05126508 -3.4357104 1.9723573
-0.04722017 -3.4297364 1.9744998
-0.035152473 -3.4440796 1.9720384
-0.029961633 -3.4417324 1.9730574
-0.029107552 -3.4446225 1.9609628
-0.016628951 -3.4423871 1.9618586
-0.023945058 -3.4431121 1.9568884
-0.0015232561 -3.4307938 1.9721814
0.0045968485 -3.4306321 1.9672012
0.0045531658 -3.4383986 1.9741869
0.0074511594 -3.4362793 1.9636264
0.0077350573 -3.4349184 1.9591112
0.010161547 -3.4262936 1.9603173
0.010126527 -3.4372816 1.9639282
0.031110564 -3.4322193 1.9647002
0.019999901 -3.4394825 1.9677519
0.029785119 -3.4388654 1.9701161
0.034600057 -3.4406304 1.9648297
0.034707882 -3.4410794 1.959729
0.04983547 -3.4263761 1.9668791
0.051948659 -3.433579 1.9761595
0.063501254 -3.425302 1.9668046
0.070538588 -3.4394023 1.966072
0.058781851 -3.4383421 1.974342
0.070636019 -3.4411016 1.967658
0.083262041 -3.4397757 1.9736884
0.07893955 -3.4334688 1.960306
0.076981217 -3.4271507 1.9651225
0.089736298 -3.4255288 1.9694468
0.097390443 -3.433583 1.9684247
0.092194632 -3.4443276 1.9601433
0.096279003 -3.4283235 1.960076
0.11100837 -3.4300854 1.9658382
0.12500487 -3.4284077 1.9725842
0.1272711 -3.4396789 1.9764875
0.12285321 -3.4431276 1.9616265
0.12446538 -3.4357016 1.9729759
0.13269506 -3.4350371 1.9705398
0.14574084 -3.4264202 1.9696156
0.14311069 -3.434952 1.9605204
0.13945818 -3.4334819 1.9605567
0.14752407 -3.4327297 1.976467
0.1555223 -3.4420502 1.9704783
0.16928248 -3.4221764 1.9660237
0.16978848 -3.4248378 1.9701473
0.17419742 -3.4367187 1.9706651
0.18374507 -3.4317884 1.958445
0.18464173 -3.42343 1.9667188
0.183102 -3.4268262 1.9634323
0.20063771 -3.4376533 1.9714301
0.18907778 -3.436933 1.9607072
0.19755389 -3.4329469 1.9705391
0.20193991 -3.4257624 1.9708463
0.22033684 -3.4296172 1.9708166
0.21427874 -3.4377651 1.9679079
0.21234381 -3.4263029 1.9728941
0.23092632 -3.4300914 1.9625794
0.23728825 -3.4377816 1.9603856
0.23192362 -3.4318094 1.9745511
0.24327198 -3.4330988 1.9576384
0.24261768 -3.4307456 1.9611881
0.25124007 -3.4247129 1.9684594
0.24969392 -3.4190905 1.962644
0.26845446 -3.4198673 1.9726959
0.26718482 -3.4314981 1.9743154
0.26300603 -3.4298587 1.9671057
0.28381288 -3.4344318 1.9758095
0.27430448 -3.4174373 1.9765182
0.28260177 -3.4306016 1.9628878
0.28506401 -3.4172108 1.9676497
0.29061306 -3.4292676 1.9744401
0.29971129 -3.4174945 1.9669316
0.29608023 -3.43206 1.9647071
0.30663317 -3.4326563 1.9613608
0.30723748 -3.4193137 1.9660324
0.30946064 -3.4149406 1.9719849
0.32447356 -3.4145508 1.9729991
0.32818958 -3.4284589 1.9706361
0.33261377 -3.4188592 1.9747305
0.34340689 -3.4115858 1.9718304
0.33896127 -3.4235513 1.9764817
0.34130538 -3.4112065 1.9725075
0.35614035 -3.4272795 1.9735627
0.3487502 -3.4175858 1.9736096
0.35801312 -3.4120739 1.9665805
0.3719469 -3.4091239 1.9634993
0.3718324 -3.4159458 1.9603759
0.37273151 -3.4238358 1.9629056
0.3712669 -3.4120848 1.9745897
0.39389598 -3.4143236 1.9730952
0.39362422 -3.4057903 1.9591763
0.39800304 -3.4196942 1.957137
0.39840689 -3.4235442 1.9585526
0.39986524 -3.4195645 1.9691828
0.40136969 -3.4111013 1.9648396
0.41584429 -3.4134834 1.9629542
0.42723688 -3.420758 1.973748
0.41550532 -3.411911 1.9761465
0.42630261 -3.4093053 1.9697835
0.42878318 -3.4088466 1.9606631
0.42976838 -3.413435 1.9595503
0.43683386 -3.4184194 1.9640013
0.44185919 -3.4077735 1.9640635
0.44829923 -3.4004424 1.9675598
0.46536875 -3.416379 1.9589671
0.45809415 -3.4026127 1.9674333
0.46893322 -3.4022245 1.9680594
0.47056526 -3.3983378 1.9569601
0.47459483 -3.4084229 1.9678875
0.47226065 -3.4007959 1.9586881
0.48080498 -3.3969512 1.9643079
0.48823565 -3.4108076 1.9643446
0.50011641 -3.4044046 1.9744216
0.49205846 -3.3963268 1.9712175
0.50749588 -3.3959434 1.9714577
0.51433951 -3.4075978 1.9648387
0.50964844 -3.3931756 1.9579756
0.52558249 -3.4018829 1.9743603
0.53041625 -3.3913212 1.9600143
0.52617645 -3.3878534 1.972643
0.53273618 -3.4006002 1.9684577
0.54491472 -3.3906741 1.9697503
0.53712898 -3.3936241 1.9767736
0.53941923 -3.3893881 1.9711962
0.55850428 -3.3944697 1.9653168
0.55782849 -3.3974619 1.9670906
0.55053264 -3.3898983 1.962588
0.55637264 -3.3911526 1.9686725
0.57859623 -3.3923244 1.9646069
0.56647271 -3.3824861 1.9632902
0.58697677 -3.3908374 1.9685014
0.58329433 -3.3917582 1.962907
0.58090341 -3.3852117 1.9736238
0.58553469 -3.3811212 1.9678311
0.6045875 -3.3826907 1.9762051
0.5977596 -3.3896799 1.9608283
0.61270446 -3.3887076 1.9722501
0.60314548 -3.3866374 1.9616457
0.61966997 -3.3870845 1.9690912
0.61212754 -3.3843946 1.9655898
0.62326723 -3.3859394 1.9729456
0.63961703 -3.3759041 1.9585823
0.63037109 -3.3729959 1.9699605
0.63184071 -3.3701918 1.9646176
0.64751655 -3.3730688 1.9568872
0.65156502 -3.3675067 1.9613429
0.66023558 -3.3717318 1.9659392
0.66032666 -3.3702462 1.9717677
0.66981208 -3.3769655 1.9763047
0.66674161 -3.3759558 1.9626801
0.68016845 -3.3685334 1.966653
0.68094981 -3.3694868 1.9597969
0.68736655 -3.3644111 1.9749779
0.68516016 -3.3625891 1.9720852
0.69760966 -3.3698134 1.9654313
0.70232743 -3.3577104 1.9634485
0.71149951 -3.3616567 1.9763435
0.70526654 -3.3702302 1.9698199
0.70486075 -3.3540354 1.9756662
0.70899045 -3.3656271 1.961605
0.71949428 -3.3685067 1.9740425
0.73396957 -3.3553183 1.9645959
0.72158742 -3.360425 1.9592882
0.74438477 -3.3524492 1.9748588
0.74428815 -3.3567331 1.9622548
0.73753619 -3.3610072 1.960797
0.7488001 -3.3608162 1.9744297
0.7529574 -3.3515637 1.958519
0.75058967 -3.3474207 1.9578264
0.75406671 -3.3438511 1.9645591
0.76348114 -3.3544786 1.9674225
0.76533163 -3.3553309 1.962478
0.7777341 -3.3532641 1.971424
0.78482729 -3.3530967 1.9673364
0.78748953 -3.3377218 1.957949
0.79754627 -3.3537934 1.9632649
0.8061437 -3.3432937 1.9677427
0.80837232 -3.3533282 1.9604375
0.81468868 -3.3504205 1.976233
0.82031095 -3.3487244 1.9745495
0.81266427 -3.3423007 1.9611831
0.82787943 -3.338712 1.9659024
0.81814861 -3.3474052 1.9716203
0.83736211 -3.3336875 1.9764304
0.83248651 -3.341989 1.975534
0.83822191 -3.3249133 1.957478
0.84927154 -3.3239181 1.968827
0.84479737 -3.3253708 1.9690405
0.85301644 -3.3251822 1.971054
0.85702932 -3.3240449 1.9736495
0.859357 -3.3352261 1.961548
0.86831659 -3.3358624 1.9719077
0.86199379 -3.3308983 1.9724406
0.88138729 -3.331388 1.9655505
0.88558918 -3.3214188 1.9692124
0.88889289 -3.3303781 1.9687966
0.89413899 -3.3129501 1.9682162
0.89073241 -3.324657 1.9650164
0.90753746 -3.312804 1.9608324
0.90635431 -3.3215957 1.9766064
0.90776497 -3.3127153 1.9600132
0.91707236 -3.3195298 1.9615911
0.91673774 -3.3173192 1.9669342
0.91693413 -3.3203661 1.9705821
0.93023884 -3.3038602 1.9629874
0.9272036 -3.3086982 1.9652148
0.94375074 -3.3129356 1.9636453
0.93971556 -3.3052237 1.9691374
0.95247889 -3.3053491 1.9652445
0.94105631 -3.3112981 1.9713156
0.9454059 -3.3004751 1.965016
0.95316041 -3.3049822 1.9706448
0.96249104 -3.2944591 1.9572201
0.9771629 -3.308373 1.959478
0.97548085 -3.2936141 1.956965
0.98620224 -3.3065205 1.9683309
0.97914916 -3.2875078 1.9741695
0.99052465 -3.2971568 1.9664236
0.98739034 -3.298667 1.9572498
1.0003612 -3.2962224 1.9608178
0.99940127 -3.2940495 1.9738928
1.0121398 -3.2887409 1.961139
1.0105051 -3.2787189 1.9575796
1.0154437 -3.2786407 1.9587712
1.0226384 -3.284858 1.9733802
1.0273181 -3.2849655 1.9737351
1.0233617 -3.2767358 1.9717481
1.0252419 -3.2817385 1.9587513
1.0393741 -3.2744815 1.9628772
1.0443307 -3.2788577 1.9680736
1.0528531 -3.268796 1.974063
1.0544487 -3.2705958 1.9639745
1.0632883 -3.2786288 1.9625148
1.0685664 -3.2663195 1.959734
1.0750341 -3.2714097 1.9693301
1.0761089 -3.2764127 1.9574064
1.0775365 -3.2699628 1.9722937
1.0769749 -3.266221 1.9607532
1.0834144 -3.2729332 1.9750382
1.0939777 -3.2592735 1.963509
1.0897354 -3.2616739 1.9605973
1.0914805 -3.2670591 1.9744347
1.1031349 -3.248183 1.9587822
1.1133273 -3.2486053 1.9739754
1.1207368 -3.247134 1.9626083
1.1177403 -3.2491603 1.9647619
1.122818 -3.2543294 1.9718827
1.1227808 -3.2446282 1.9612563
1.1312009 -3.2530532 1.9624219
1.1339039 -3.2554791 1.9757453
1.1450754 -3.2467093 1.9651603
1.1333331 -3.2407539 1.9676754
1.1554259 -3.2477021 1.9675455
1.1418641 -3.2490132 1.965466
1.1634933 -3.2474682 1.963324
1.153753 -3.2334709 1.9576155
1.1661643 -3.2389452 1.9651915
1.165694 -3.2290034 1.9609159
1.174595 -3.2351863 1.966656
1.1846594 -3.2232089 1.9684045
1.1880449 -3.2246003 1.9573512
1.1808431 -3.2222724 1.9706748
1.1961541 -3.2223873 1.9754657
1.1913329 -3.2205982 1.9573545
1.2044299 -3.2217114 1.9591911
1.2153826 -3.2170939 1.9734213
1.2006245 -3.2245924 1.9605674
1.2134399 -3.2170861 1.9760389
1.2219776 -3.2252014 1.9637049
1.2162528 -3.2077727 1.9617195
1.2322743 -3.2114763 1.9767075
8.5276461 2.9640715 0.36168322
8.5170584 2.9728951 0.3607381
8.5235233 2.9797111 0.35274523
8.5130205 2.9913969 0.35050225
8.5215244 3.0044723 0.35921866
8.3307285 2.9505498 0.41713476
8.332654 2.965915 0.41688797
8.3226023 2.9903426 0.4185729
